ply
format ascii 1.0
comment Created by Open3D
element vertex 1547
property float x
property float y
property float z
end_header
-0.0478041 0.162944 0.00249746
-0.0473325 0.163001 0.00206356
-0.0468526 0.163057 0.0017644
-0.0463725 0.163111 0.0014652
-0.045901 0.16317 0.00103133
-0.0454209 0.163225 0.000732131
-0.044941 0.16328 0.000432968
-0.044461 0.163335 0.000133787
-0.0439809 0.163389 -0.000165424
-0.0435094 0.163448 -0.000599293
-0.0430294 0.163502 -0.000898474
-0.0425494 0.163558 -0.00119765
-0.042061 0.163609 -0.00136211
-0.041581 0.163663 -0.00166133
-0.041101 0.163719 -0.00196046
-0.040621 0.163773 -0.00225967
-0.0401326 0.163825 -0.00242413
-0.0396526 0.16388 -0.00272326
-0.0391642 0.163931 -0.00288783
-0.0386758 0.163983 -0.00305229
-0.0381959 0.164038 -0.00335143
-0.0377158 0.164093 -0.0036506
-0.0372274 0.164144 -0.00381507
-0.0367475 0.164199 -0.0041142
-0.0362591 0.164251 -0.00427877
-0.035779 0.164305 -0.00457794
-0.0352991 0.164361 -0.00487707
-0.0348107 0.164412 -0.00504154
-0.0343223 0.164463 -0.00520601
-0.0338423 0.164518 -0.00550528
-0.0333539 0.16457 -0.00566971
-0.0328655 0.164621 -0.00583417
-0.0323771 0.164672 -0.00599864
-0.0318971 0.164727 -0.00629781
-0.0314087 0.164779 -0.00646224
-0.0309203 0.16483 -0.00662671
-0.0304487 0.164888 -0.00706068
-0.0299604 0.16494 -0.00722511
-0.0294803 0.164995 -0.00752428
-0.0290088 0.165054 -0.00795822
-0.0285371 0.165111 -0.0083921
-0.0280656 0.16517 -0.00882593
-0.0276024 0.165232 -0.00939458
-0.0271391 0.165293 -0.00996316
-0.0266844 0.165358 -0.0106665
-0.0262464 0.165431 -0.0116392
-0.0257833 0.165493 -0.0122078
-0.0966559 0.159922 -0.0240309
-0.0960161 0.15991 -0.0217706
-0.0954353 0.159924 -0.0204532
-0.0948543 0.159937 -0.0191358
-0.0942818 0.159952 -0.0179533
-0.0937514 0.159986 -0.0174441
-0.0931453 0.159989 -0.0157226
-0.0925644 0.160002 -0.0144053
-0.092034 0.160036 -0.0138962
-0.0914951 0.160066 -0.0132524
-0.090973 0.160103 -0.012878
-0.0904342 0.160134 -0.0122342
-0.0898954 0.160165 -0.0115904
-0.089365 0.160199 -0.0110813
-0.0888597 0.160243 -0.0109764
-0.0883714 0.160295 -0.0111408
-0.0878577 0.160336 -0.0109012
-0.0873778 0.160391 -0.0112004
-0.0868893 0.160442 -0.0113648
-0.0864093 0.160497 -0.011664
-0.085963 0.160566 -0.0125021
-0.0855251 0.160639 -0.0134748
-0.0850451 0.160694 -0.013774
-0.084582 0.160756 -0.0143426
-0.0841777 0.160843 -0.0158542
-0.0837229 0.160908 -0.0165575
-0.0833271 0.160999 -0.0182038
-0.0828387 0.16105 -0.0183683
-0.0824764 0.161154 -0.0205535
-0.0636257 0.161967 0.00982249
-0.0631205 0.162012 0.00992746
-0.0625648 0.162036 0.0108407
-0.0620512 0.162076 0.0110803
-0.0615376 0.162118 0.01132
-0.0610155 0.162155 0.0116944
-0.0605104 0.1622 0.0117993
-0.0600052 0.162244 0.0119043
-0.0594999 0.162288 0.0120092
-0.0589947 0.162333 0.0121142
-0.0584895 0.162378 0.0122191
-0.0579927 0.162426 0.0121894
-0.0574875 0.16247 0.0122943
-0.0569991 0.162522 0.0121298
-0.0565023 0.16257 0.0121001
-0.0560139 0.162621 0.0119356
-0.0555171 0.162669 0.0119058
-0.0550372 0.162725 0.0116067
-0.0545488 0.162776 0.0114422
-0.0540687 0.16283 0.011143
-0.0535888 0.162886 0.0108438
-0.0531256 0.162948 0.0102752
-0.0526541 0.163006 0.0098413
-0.0521993 0.163072 0.00913795
-0.0517361 0.163134 0.00856933
-0.0513151 0.163214 0.0073272
-0.0508603 0.163279 0.00662384
-0.0504224 0.163352 0.0056511
-0.0499844 0.163424 0.00467836
-0.0495213 0.163486 0.00410974
-0.0490666 0.163552 0.00340645
-0.048595 0.163611 0.00297255
-0.0481319 0.163673 0.00240395
-0.0476518 0.163728 0.00210473
-0.0471803 0.163786 0.00167084
-0.0467087 0.163845 0.00123696
-0.0462287 0.1639 0.000937736
-0.0457571 0.163958 0.000503848
-0.0452772 0.164014 0.000204684
-0.0447972 0.164068 -9.45272e-05
-0.0443256 0.164127 -0.000528425
-0.0438457 0.164182 -0.000827579
-0.0433656 0.164237 -0.0011268
-0.0428857 0.164292 -0.00142595
-0.0424057 0.164347 -0.00172518
-0.0419257 0.164402 -0.00202434
-0.0414373 0.164454 -0.00218883
-0.0409574 0.164509 -0.00248804
-0.0404774 0.164564 -0.00278721
-0.0399974 0.164619 -0.00308634
-0.039509 0.16467 -0.00325081
-0.0390291 0.164726 -0.00355004
-0.038549 0.16478 -0.00384922
-0.0380691 0.164836 -0.00414845
-0.0375807 0.164887 -0.00431292
-0.0371091 0.164946 -0.00474675
-0.0366123 0.164994 -0.00477652
-0.0361324 0.165049 -0.00507575
-0.035644 0.165101 -0.00524022
-0.0351639 0.165155 -0.00553939
-0.034684 0.16521 -0.00583852
-0.0341956 0.165262 -0.00600309
-0.0337157 0.165317 -0.00630222
-0.0332189 0.165365 -0.00633199
-0.0327473 0.165424 -0.00676592
-0.0322589 0.165475 -0.00693039
-0.0317705 0.165526 -0.00709486
-0.0312822 0.165579 -0.00725929
-0.0308105 0.165636 -0.00769326
-0.0303222 0.165689 -0.00785769
-0.0298422 0.165743 -0.00815686
-0.0293706 0.165802 -0.0085908
-0.0288907 0.165857 -0.00888993
-0.0284106 0.165912 -0.00918921
-0.0279391 0.165971 -0.00962304
-0.0274759 0.166033 -0.0101917
-0.0270127 0.166094 -0.0107602
-0.0265664 0.166164 -0.0115982
-0.0261033 0.166226 -0.0121669
-0.0256822 0.166306 -0.0134091
-0.0964548 0.160703 -0.0236159
-0.0958738 0.160714 -0.0222986
-0.0953265 0.160741 -0.02152
-0.0947287 0.160746 -0.0199333
-0.0942067 0.160783 -0.0195589
-0.0935752 0.160774 -0.0174332
-0.0930363 0.160803 -0.0167894
-0.0924806 0.160827 -0.0158761
-0.0919333 0.160853 -0.0150976
-0.0913944 0.160883 -0.0144537
-0.0908639 0.160916 -0.0139448
-0.0903082 0.16094 -0.0130315
-0.089803 0.160984 -0.0129265
-0.0892894 0.161025 -0.0126868
-0.0887588 0.161058 -0.0121777
-0.0882789 0.161114 -0.012477
-0.0877652 0.161154 -0.0122373
-0.0872853 0.16121 -0.0125365
-0.0868137 0.161268 -0.0129703
-0.0863591 0.161334 -0.0136737
-0.0858959 0.161396 -0.0142424
-0.0854328 0.161459 -0.0148109
-0.0849613 0.161518 -0.0152448
-0.0845402 0.161598 -0.016487
-0.0841108 0.161675 -0.0175945
-0.0837234 0.16177 -0.0193755
-0.0832771 0.16184 -0.0202137
-0.0630015 0.162807 0.00899601
-0.0624542 0.162834 0.00977454
-0.0619322 0.162871 0.0101489
-0.0614185 0.162911 0.0103886
-0.0608965 0.162949 0.010763
-0.0603744 0.162986 0.0111373
-0.0598607 0.163027 0.011377
-0.0593556 0.163071 0.011482
-0.0588504 0.163116 0.0115869
-0.0583451 0.16316 0.0116919
-0.0578483 0.163208 0.0116621
-0.0573431 0.163253 0.0117671
-0.0568463 0.163301 0.0117373
-0.0563495 0.163349 0.0117076
-0.0558611 0.1634 0.0115431
-0.0553643 0.163448 0.0115133
-0.054876 0.1635 0.0113488
-0.0543876 0.163552 0.0111843
-0.0539076 0.163607 0.0108852
-0.0534277 0.163662 0.010586
-0.0529477 0.163717 0.0102868
-0.0524761 0.163776 0.00985286
-0.0520299 0.163846 0.00901484
-0.0515584 0.163905 0.00858092
-0.0511204 0.163978 0.00760813
-0.0506741 0.164047 0.00677008
-0.0502278 0.164116 0.00593203
-0.0497984 0.164193 0.00482455
-0.0493521 0.164263 0.0039865
-0.0488974 0.164329 0.00328316
-0.0484343 0.164392 0.00271455
-0.0479711 0.164454 0.00214591
-0.0474912 0.164509 0.00184674
-0.047028 0.164571 0.0012781
-0.0465481 0.164627 0.000978901
-0.0460849 0.164689 0.000410268
-0.045605 0.164744 0.000111094
-0.0451251 0.1648 -0.000188079
-0.044645 0.164854 -0.00048731
-0.0441736 0.164914 -0.000921181
-0.0436935 0.164968 -0.00122039
-0.0432136 0.165024 -0.00151959
-0.0427421 0.165083 -0.00195348
-0.0422621 0.165138 -0.00225272
-0.0417821 0.165193 -0.00255189
-0.0413022 0.165248 -0.00285102
-0.0408222 0.165303 -0.00315026
-0.0403338 0.165355 -0.00331472
-0.0398539 0.16541 -0.00361396
-0.0393739 0.165466 -0.00391309
-0.0388939 0.16552 -0.00421236
-0.038414 0.165576 -0.0045115
-0.037934 0.165631 -0.00481073
-0.0374541 0.165687 -0.00510986
-0.0369657 0.165738 -0.00527433
-0.0364773 0.165789 -0.0054389
-0.0359973 0.165845 -0.00573803
-0.0355174 0.1659 -0.00603726
-0.035029 0.165951 -0.00620173
-0.034549 0.166007 -0.00650087
-0.0340691 0.166062 -0.0068001
-0.0335807 0.166114 -0.00696457
-0.0330923 0.166165 -0.00712903
-0.0326123 0.16622 -0.00742827
-0.0321239 0.166272 -0.00759273
-0.031644 0.166327 -0.00789187
-0.0311641 0.166383 -0.0081911
-0.0306756 0.166434 -0.00835557
-0.0301957 0.166489 -0.0086548
-0.0297158 0.166545 -0.00895393
-0.0292357 0.166599 -0.00925321
-0.0287642 0.166658 -0.00968704
-0.0282843 0.166713 -0.00998628
-0.0278211 0.166775 -0.0105549
-0.0273496 0.166835 -0.0109887
-0.0268865 0.166897 -0.0115574
-0.0264318 0.166963 -0.0122608
-0.0260023 0.16704 -0.0133683
-0.0255981 0.167128 -0.0148798
-0.0968853 0.161493 -0.0253268
-0.0963212 0.161512 -0.0242788
-0.09574 0.161523 -0.0229614
-0.0951927 0.161549 -0.0221828
-0.0945948 0.161552 -0.020596
-0.0940812 0.161594 -0.0203563
-0.0934748 0.161594 -0.0186347
-0.0929612 0.161634 -0.018395
-0.0923969 0.161653 -0.0173471
-0.0918159 0.161664 -0.0160297
-0.0913191 0.161712 -0.0160594
-0.0907802 0.161742 -0.0154157
-0.0902581 0.161779 -0.0150412
-0.0896939 0.161798 -0.0139932
-0.0892056 0.16185 -0.0141577
-0.0887088 0.161898 -0.0141874
-0.0881782 0.161931 -0.0136783
-0.0877319 0.162 -0.0145164
-0.0872351 0.162048 -0.0145462
-0.0867637 0.162108 -0.0149801
-0.0863427 0.162189 -0.0162224
-0.0858712 0.162248 -0.0166563
-0.0854081 0.162311 -0.0172249
-0.0850293 0.16241 -0.0191407
-0.0845662 0.162473 -0.0197093
-0.084162 0.162561 -0.021221
-0.0623522 0.163637 0.00857365
-0.0618301 0.163674 0.00894805
-0.061308 0.163711 0.00932242
-0.0607691 0.16374 0.00996626
-0.0602554 0.163781 0.0102059
-0.0597418 0.163821 0.0104456
-0.0592197 0.163859 0.01082
-0.0587229 0.163907 0.0107902
-0.0582177 0.163952 0.0108952
-0.0577124 0.163995 0.0110001
-0.0572073 0.16404 0.0111051
-0.056702 0.164084 0.01121
-0.0562052 0.164132 0.0111803
-0.0557084 0.16418 0.0111505
-0.0552201 0.164232 0.0109861
-0.0547148 0.164276 0.011091
-0.0542349 0.164331 0.0107918
-0.0537465 0.164384 0.0106274
-0.0532581 0.164435 0.0104628
-0.0527866 0.164494 0.0100289
-0.0523151 0.164553 0.00959502
-0.0518519 0.164615 0.00902637
-0.0513889 0.164678 0.00845774
-0.0509427 0.164749 0.00761968
-0.050488 0.164815 0.00691633
-0.0500418 0.164885 0.00607826
-0.0495955 0.164955 0.00524017
-0.0491576 0.165028 0.00426739
-0.0487198 0.165102 0.0032946
-0.0482652 0.165169 0.00259125
-0.0478021 0.165231 0.00202259
-0.0473306 0.165291 0.0015887
-0.0468674 0.165353 0.00102004
-0.046396 0.165413 0.000586147
-0.0459244 0.165471 0.000152229
-0.0454445 0.165527 -0.000146955
-0.0449729 0.165586 -0.000580903
-0.044493 0.165641 -0.000880086
-0.0440215 0.1657 -0.00131401
-0.04355 0.165759 -0.0017479
-0.0430701 0.165815 -0.0020471
-0.0425985 0.165874 -0.002481
-0.0421101 0.165925 -0.00264556
-0.0416302 0.16598 -0.0029447
-0.0411586 0.166039 -0.00337864
-0.0406703 0.166091 -0.00354307
-0.0401987 0.16615 -0.003977
-0.0397104 0.166202 -0.00414153
-0.0392305 0.166258 -0.00444067
-0.0387589 0.166317 -0.0048746
-0.0382705 0.166368 -0.00503907
-0.0377906 0.166423 -0.0053383
-0.0373107 0.166479 -0.00563754
-0.0368307 0.166534 -0.00593667
-0.0363423 0.166586 -0.00610114
-0.0358624 0.166641 -0.00640037
-0.0353824 0.166696 -0.00669961
-0.0348941 0.166749 -0.00686404
-0.0344141 0.166803 -0.00716331
-0.0339341 0.166859 -0.00746244
-0.0334458 0.166911 -0.00762697
-0.0329659 0.166966 -0.0079261
-0.0324775 0.167018 -0.00809067
-0.0320059 0.167076 -0.00852451
-0.0315176 0.167129 -0.00868904
-0.0310377 0.167184 -0.00898817
-0.0305576 0.167239 -0.00928744
-0.0300693 0.167291 -0.00945187
-0.0295894 0.167346 -0.00975111
-0.0291094 0.167402 -0.0100502
-0.0286379 0.167461 -0.0104842
-0.0281663 0.167519 -0.0109181
-0.0276864 0.167575 -0.0112174
-0.0272317 0.167641 -0.0119207
-0.0267687 0.167704 -0.0124893
-0.026314 0.16777 -0.0131927
-0.025893 0.167851 -0.0144349
-0.0967265 0.162293 -0.0255855
-0.096196 0.162326 -0.0250764
-0.0956064 0.162332 -0.0236243
-0.0950758 0.162365 -0.0231151
-0.0944947 0.162376 -0.0217977
-0.093981 0.162416 -0.021558
-0.0933831 0.162419 -0.0199711
-0.0928525 0.162453 -0.0194619
-0.0922798 0.162466 -0.0182793
-0.091783 0.162514 -0.018309
-0.0912188 0.162533 -0.017261
-0.0906714 0.162558 -0.0164824
-0.0901998 0.162617 -0.0169164
-0.0896609 0.162647 -0.0162725
-0.0891472 0.162687 -0.0160328
-0.0886673 0.162743 -0.016332
-0.088162 0.162787 -0.0162271
-0.0876906 0.162846 -0.016661
-0.087219 0.162905 -0.017095
-0.0867307 0.162957 -0.0172594
-0.0863266 0.163046 -0.0187711
-0.085872 0.163113 -0.0194745
-0.0853921 0.163168 -0.0197737
-0.0617451 0.164486 0.00747767
-0.0611808 0.164504 0.00852568
-0.0606671 0.164545 0.00876536
-0.060145 0.164581 0.00913974
-0.0596229 0.164617 0.00951414
-0.0591008 0.164655 0.00988855
-0.0585955 0.164698 0.00999348
-0.0580819 0.164739 0.0102332
-0.0575767 0.164784 0.0103382
-0.0570714 0.164828 0.0104431
-0.0565662 0.164872 0.0105481
-0.0560609 0.164916 0.010653
-0.0555726 0.164968 0.0104885
-0.0550674 0.165012 0.0105935
-0.0545706 0.16506 0.0105637
-0.0540822 0.165112 0.0103993
-0.0535854 0.16516 0.0103695
-0.0531055 0.165216 0.0100703
-0.0526256 0.165271 0.00977107
-0.0521456 0.165327 0.00947188
-0.0516826 0.16539 0.00890323
-0.0512195 0.165453 0.00833458
-0.0507564 0.165516 0.00776592
-0.0503102 0.165586 0.00692784
-0.0498556 0.165653 0.00622448
-0.0494094 0.165724 0.00538639
-0.0489632 0.165794 0.00454828
-0.0485255 0.165869 0.00357549
-0.0480961 0.165947 0.00246797
-0.0476246 0.166005 0.00203402
-0.04717 0.166073 0.00133066
-0.0467069 0.166136 0.000762009
-0.0462354 0.166194 0.000328071
-0.0457639 0.166254 -0.00010583
-0.0452924 0.166313 -0.000539798
-0.0448209 0.166372 -0.000973699
-0.044341 0.166428 -0.0012729
-0.0438695 0.166488 -0.0017068
-0.0433896 0.166543 -0.00200603
-0.042918 0.166602 -0.00244
-0.0424466 0.166662 -0.00287391
-0.0419667 0.166717 -0.00317314
-0.0414867 0.166773 -0.00347227
-0.0410068 0.166828 -0.00377151
-0.0405268 0.166884 -0.00407074
-0.0400469 0.166939 -0.00436987
-0.0395754 0.166998 -0.00480381
-0.039087 0.16705 -0.00496834
-0.0386071 0.167105 -0.00526758
-0.0381272 0.167161 -0.00556671
-0.0376472 0.167216 -0.00586594
-0.0371673 0.167272 -0.00616518
-0.0366874 0.167327 -0.00646431
-0.0362074 0.167383 -0.00676354
-0.0357275 0.167438 -0.00706278
-0.0352392 0.167491 -0.00722721
-0.0347592 0.167546 -0.00752644
-0.0342708 0.167597 -0.00769091
-0.0337909 0.167653 -0.00799014
-0.033311 0.167708 -0.00828938
-0.0328395 0.167768 -0.00872328
-0.0323511 0.167819 -0.00888774
-0.0318628 0.167872 -0.00905227
-0.0313828 0.167927 -0.00935141
-0.0309113 0.167986 -0.00978534
-0.030423 0.168038 -0.00994987
-0.029943 0.168093 -0.0102491
-0.0294631 0.168149 -0.0105482
-0.0289832 0.168204 -0.0108475
-0.0285117 0.168264 -0.0112814
-0.0280318 0.16832 -0.0115806
-0.0275771 0.168386 -0.012284
-0.0271056 0.168446 -0.0127179
-0.0266509 0.168512 -0.0134212
-0.0262301 0.168594 -0.0146635
-0.0257839 0.168664 -0.0155016
-0.0971826 0.163097 -0.0277007
-0.0966605 0.163134 -0.0273263
-0.0960286 0.163121 -0.0252004
-0.0955234 0.163165 -0.0250954
-0.0949844 0.163194 -0.0244516
-0.094496 0.163246 -0.0246161
-0.0938557 0.163229 -0.0223555
-0.0932576 0.16323 -0.0207686
-0.0927524 0.163275 -0.0206636
-0.0922387 0.163315 -0.0204239
-0.0916744 0.163332 -0.0193759
-0.0911691 0.163376 -0.0192709
-0.0906639 0.163421 -0.019166
-0.0901164 0.163446 -0.0183874
-0.0896028 0.163486 -0.0181478
-0.089106 0.163534 -0.0181775
-0.0885838 0.16357 -0.017803
-0.0881292 0.163638 -0.0185064
-0.0876746 0.163705 -0.0192099
-0.0872454 0.163784 -0.0203174
-0.0867064 0.163813 -0.0196735
-0.0863109 0.163906 -0.02132
-0.0605737 0.165353 0.00742965
-0.0600262 0.165378 0.00820821
-0.059521 0.165423 0.00831319
-0.0589904 0.165455 0.00882231
-0.0584852 0.1655 0.0089273
-0.0579631 0.165536 0.0093017
-0.0574494 0.165576 0.00954139
-0.0569441 0.16562 0.00964633
-0.0564305 0.165661 0.00988602
-0.0559337 0.165709 0.00985625
-0.0554284 0.165752 0.00996121
-0.0549232 0.165797 0.0100662
-0.0544264 0.165845 0.0100364
-0.0539296 0.165893 0.0100067
-0.0534328 0.165941 0.00997691
-0.0529529 0.165997 0.00967768
-0.0524646 0.166049 0.00951322
-0.0519846 0.166105 0.009214
-0.0515047 0.16616 0.00891479
-0.0510416 0.166223 0.00834611
-0.0505786 0.166287 0.00777747
-0.0501324 0.166357 0.00693935
-0.0496779 0.166425 0.00623596
-0.0492233 0.166492 0.00553257
-0.0487687 0.166559 0.0048292
-0.0483394 0.166638 0.00372165
-0.0478933 0.166709 0.00288356
-0.0474556 0.166784 0.00191072
-0.047001 0.166851 0.00120733
-0.0465379 0.166914 0.000638657
-0.0460665 0.166974 0.000204736
-0.045595 0.167033 -0.000229195
-0.0451235 0.167092 -0.000663142
-0.0446605 0.167156 -0.00123179
-0.044189 0.167216 -0.00166571
-0.0437091 0.167271 -0.00196494
-0.0432377 0.167331 -0.00239888
-0.0427661 0.16739 -0.00283281
-0.0422863 0.167446 -0.00313201
-0.0418063 0.167502 -0.00343124
-0.0413348 0.16756 -0.00386518
-0.0408549 0.167617 -0.00416438
-0.040375 0.167672 -0.00446361
-0.0399036 0.167732 -0.00489751
-0.0394236 0.167788 -0.00519675
-0.0389437 0.167843 -0.00549598
-0.0384638 0.167899 -0.00579521
-0.0379838 0.167954 -0.00609435
-0.037504 0.168011 -0.00639354
-0.0370241 0.168066 -0.00669278
-0.0365441 0.168122 -0.00699201
-0.0360642 0.168177 -0.00729124
-0.0355759 0.168229 -0.00745567
-0.0351044 0.168289 -0.00788968
-0.0346245 0.168344 -0.00818881
-0.0341361 0.168396 -0.00835338
-0.0336562 0.168452 -0.00865257
-0.0331763 0.168508 -0.00895181
-0.0326964 0.168563 -0.00925094
-0.0322079 0.168614 -0.00941551
-0.0317281 0.168671 -0.0097146
-0.0312566 0.16873 -0.0101486
-0.0307767 0.168786 -0.0104478
-0.0302883 0.168837 -0.0106123
-0.0298084 0.168893 -0.0109115
-0.0293369 0.168953 -0.0113454
-0.028857 0.169008 -0.0116447
-0.0283771 0.169065 -0.0119439
-0.0279141 0.169127 -0.0125126
-0.0274426 0.169187 -0.0129465
-0.026988 0.169254 -0.0136498
-0.0265334 0.169322 -0.0143532
-0.0261294 0.169411 -0.015865
-0.0256665 0.169475 -0.0164336
-0.0970603 0.163913 -0.0285435
-0.0965547 0.163958 -0.028431
-0.0959374 0.163951 -0.026537
-0.0953984 0.16398 -0.0258931
-0.0948762 0.164017 -0.0255187
-0.0943456 0.164049 -0.0250095
-0.093815 0.164081 -0.0245004
-0.093259 0.164101 -0.023587
-0.0926862 0.164114 -0.0224043
-0.092164 0.16415 -0.0220299
-0.0917264 0.164226 -0.0230027
-0.0912127 0.164267 -0.022763
-0.0905722 0.164248 -0.0205024
-0.0900839 0.1643 -0.0206668
-0.0895703 0.16434 -0.0204271
-0.0890735 0.164388 -0.0204569
-0.0885767 0.164436 -0.0204867
-0.0881052 0.164496 -0.0209207
-0.059933 0.166188 0.00687249
-0.0594108 0.166225 0.00724691
-0.0588971 0.166264 0.00748659
-0.0583749 0.166301 0.00786101
-0.0578528 0.166337 0.00823542
-0.0573222 0.16637 0.0087446
-0.0568254 0.166418 0.00871483
-0.0563117 0.166458 0.00895449
-0.055798 0.166498 0.0091942
-0.0552844 0.166539 0.0094339
-0.0547876 0.166587 0.00940414
-0.0542823 0.16663 0.0095091
-0.0537855 0.166678 0.00947934
-0.0532887 0.166726 0.00944958
-0.0528004 0.166779 0.00928509
-0.0523119 0.16683 0.00912059
-0.0518236 0.166882 0.0089561
-0.0513437 0.166938 0.00865687
-0.0508722 0.166997 0.00822292
-0.0504093 0.167061 0.00765426
-0.0499547 0.167129 0.00695086
-0.0495002 0.167197 0.00624748
-0.0490372 0.167261 0.00567882
-0.0485911 0.167332 0.00484069
-0.048145 0.167404 0.00400257
-0.0477073 0.167478 0.00302967
-0.0472696 0.167554 0.00205684
-0.0468235 0.167625 0.00121872
-0.0463689 0.167692 0.000515285
-0.0458975 0.167752 8.13444e-05
-0.045443 0.16782 -0.00062202
-0.0449715 0.16788 -0.00105596
-0.0445001 0.16794 -0.00148992
-0.0440202 0.167995 -0.00178914
-0.0435487 0.168055 -0.00222312
-0.0430773 0.168115 -0.00265702
-0.0426058 0.168174 -0.00309102
-0.0421343 0.168234 -0.00352492
-0.0416545 0.168291 -0.00382411
-0.0411831 0.16835 -0.00425802
-0.0407031 0.168406 -0.00455725
-0.0402232 0.168461 -0.00485648
-0.0397517 0.168521 -0.00529048
-0.0392634 0.168573 -0.00545491
-0.038792 0.168633 -0.00588891
-0.038312 0.168689 -0.00618815
-0.0378322 0.168745 -0.00648734
-0.0373523 0.1688 -0.00678658
-0.0368723 0.168856 -0.00708581
-0.0363925 0.168912 -0.00738501
-0.0359126 0.168968 -0.00768424
-0.0354411 0.169028 -0.00811814
-0.0349613 0.169084 -0.00841734
-0.0344728 0.169135 -0.00858181
-0.033993 0.169192 -0.008881
-0.0335131 0.169247 -0.00918024
-0.0330331 0.169303 -0.00947947
-0.0325533 0.169359 -0.00977867
-0.0320734 0.169415 -0.0100779
-0.0315934 0.16947 -0.0103771
-0.0311136 0.169527 -0.0106763
-0.0306337 0.169582 -0.0109756
-0.0301537 0.169638 -0.0112748
-0.0296823 0.169697 -0.0117087
-0.0292024 0.169754 -0.012008
-0.0287225 0.169809 -0.0123071
-0.0282595 0.169873 -0.0128758
-0.0277881 0.169933 -0.0133098
-0.027325 0.169996 -0.0138785
-0.0268705 0.170064 -0.0145818
-0.0264413 0.170143 -0.0156894
-0.0260036 0.170219 -0.0166623
-0.0974795 0.164702 -0.0300679
-0.0969293 0.164727 -0.0292441
-0.0963969 0.164759 -0.0287049
-0.0958208 0.164771 -0.0274694
-0.095324 0.164819 -0.0274992
-0.0947681 0.16484 -0.0265858
-0.094229 0.164868 -0.0259419
-0.0936815 0.164892 -0.0251633
-0.09321 0.164952 -0.0255973
-0.0926709 0.16498 -0.0249534
-0.0921065 0.164996 -0.0239053
-0.0916181 0.165048 -0.0240697
-0.0911298 0.1651 -0.0242343
-0.0906246 0.165144 -0.0241293
-0.0874278 0.165612 -0.0288138
-0.0864876 0.165731 -0.0297268
-0.0860976 0.165825 -0.0314636
-0.0852552 0.165987 -0.0339416
-0.0847496 0.166032 -0.033829
-0.0592922 0.167024 0.00631529
-0.0587616 0.167056 0.00682445
-0.0582564 0.1671 0.00692945
-0.0577427 0.16714 0.00716911
-0.057229 0.167181 0.00740884
-0.0566984 0.167213 0.00791801
-0.0561931 0.167256 0.00802295
-0.0556709 0.167293 0.00839741
-0.0551572 0.167332 0.00863708
-0.0546604 0.16738 0.00860732
-0.0541467 0.167421 0.00884702
-0.0536499 0.167469 0.00881726
-0.0531446 0.167513 0.00892223
-0.0526478 0.167561 0.00889247
-0.0521595 0.167613 0.00872797
-0.0516711 0.167664 0.00856347
-0.0511913 0.167721 0.00826425
-0.0507113 0.167776 0.00796502
-0.05024 0.167837 0.0075311
-0.049777 0.167901 0.00696241
-0.049314 0.167965 0.00639373
-0.0488594 0.168032 0.00569028
-0.0484134 0.168104 0.00485214
-0.0479589 0.168173 0.00414874
-0.0475298 0.168252 0.00304113
-0.0470668 0.168316 0.00247246
-0.0466292 0.168392 0.00149958
-0.0461831 0.168463 0.000661404
-0.0457286 0.168532 -4.19904e-05
-0.0452656 0.168596 -0.000610678
-0.0448027 0.16866 -0.00117937
-0.0443312 0.168719 -0.00161333
-0.0438598 0.16878 -0.00204722
-0.0433884 0.16884 -0.00248122
-0.0429169 0.168899 -0.00291522
-0.0424456 0.16896 -0.00334908
-0.0419741 0.16902 -0.00378309
-0.0415027 0.16908 -0.00421699
-0.0410228 0.169136 -0.00451628
-0.0405429 0.169192 -0.00481552
-0.0400715 0.169251 -0.00524942
-0.0395916 0.169308 -0.00554861
-0.0391202 0.169367 -0.00598261
-0.0386403 0.169424 -0.00628181
-0.0381604 0.169479 -0.00658104
-0.0376889 0.169539 -0.00701504
-0.0372091 0.169596 -0.00731424
-0.0367208 0.169648 -0.00747867
-0.0362493 0.169708 -0.00791267
-0.0357694 0.169763 -0.0082119
-0.0352896 0.16982 -0.0085111
-0.0348096 0.169875 -0.00881034
-0.0343298 0.169932 -0.00910953
-0.0338499 0.169987 -0.00940886
-0.03337 0.170043 -0.00970806
-0.0328901 0.170099 -0.0100073
-0.0324187 0.17016 -0.0104412
-0.0319303 0.170211 -0.0106057
-0.031459 0.170272 -0.0110397
-0.030979 0.170327 -0.0113389
-0.0304992 0.170384 -0.0116381
-0.0300277 0.170443 -0.012072
-0.0295478 0.170499 -0.0123713
-0.029068 0.170555 -0.0126705
-0.028605 0.170619 -0.0132392
-0.0281335 0.170679 -0.0136731
-0.0276621 0.170739 -0.0141071
-0.0272076 0.170807 -0.0148106
-0.0267616 0.170879 -0.0156487
-0.0263493 0.170967 -0.0170257
-0.0258779 0.171027 -0.0174597
-0.0973663 0.165524 -0.0310528
-0.0968072 0.165544 -0.0300868
-0.0962747 0.165576 -0.0295476
-0.0957067 0.165592 -0.0284394
-0.0951921 0.165632 -0.0281847
-0.0946686 0.165669 -0.0277877
-0.0941465 0.165705 -0.0274132
-0.0936073 0.165732 -0.0267694
-0.0931105 0.16578 -0.0267991
-0.0925883 0.165816 -0.0264246
-0.0920323 0.165836 -0.0255113
-0.091527 0.16588 -0.0254064
-0.0910556 0.16594 -0.0258403
-0.090635 0.166024 -0.0270827
-0.0901721 0.166089 -0.0276513
-0.0896753 0.166137 -0.0276811
-0.0887159 0.166249 -0.0282871
-0.0882993 0.166333 -0.0295971
-0.0877669 0.166365 -0.0290579
-0.0873057 0.166429 -0.0296566
-0.0869959 0.16656 -0.0326735
-0.0864991 0.166608 -0.0327033
-0.0859934 0.166652 -0.0325907
-0.0855767 0.166736 -0.0339007
-0.0851601 0.16682 -0.0352107
-0.0847078 0.166887 -0.0359517
-0.0842734 0.166964 -0.0369772
-0.0581379 0.1679 0.00599782
-0.0576326 0.167944 0.00610276
-0.0571105 0.16798 0.00647723
-0.0565882 0.168016 0.00685165
-0.0560745 0.168055 0.00709133
-0.0555523 0.168092 0.00746578
-0.0550386 0.168131 0.00770549
-0.0545333 0.168175 0.00781046
-0.0540196 0.168215 0.00805017
-0.0535144 0.168259 0.00815515
-0.0530176 0.168307 0.00812539
-0.0525123 0.168351 0.00823036
-0.0520155 0.168399 0.00820059
-0.0515187 0.168447 0.00817083
-0.0510388 0.168504 0.0078716
-0.0505589 0.168559 0.00757236
-0.0500706 0.168611 0.00740786
-0.0496077 0.168676 0.00683918
-0.0491363 0.168736 0.00640521
-0.0486818 0.168804 0.00570177
-0.0482358 0.168877 0.00486361
-0.0477729 0.168941 0.00429494
-0.0473353 0.169017 0.00332202
-0.0468724 0.169082 0.00275334
-0.0464432 0.169162 0.00164568
-0.0459888 0.16923 0.00094225
-0.0455427 0.169303 0.000104079
-0.0450884 0.169372 -0.000599308
-0.0446254 0.169436 -0.00116802
-0.0441624 0.1695 -0.00173672
-0.0436911 0.16956 -0.00217066
-0.0432281 0.169624 -0.00273932
-0.0427567 0.169685 -0.00317329
-0.0422853 0.169745 -0.00360729
-0.0418139 0.169806 -0.00404125
-0.0413425 0.169865 -0.00447525
-0.0408626 0.169922 -0.00477445
-0.0403912 0.169981 -0.00520845
-0.0399113 0.170038 -0.00550765
-0.0394399 0.170098 -0.00594165
-0.03896 0.170154 -0.00624084
-0.0384887 0.170215 -0.00667481
-0.0380088 0.17027 -0.00697404
-0.0375374 0.170331 -0.007408
-0.0370575 0.170387 -0.00770724
-0.0365776 0.170443 -0.00800643
-0.0360978 0.170499 -0.00830573
-0.0356179 0.170555 -0.00860496
-0.035138 0.170611 -0.00890416
-0.0346666 0.170671 -0.00933816
-0.0341867 0.170728 -0.00963736
-0.0337069 0.170784 -0.00993655
-0.033227 0.17084 -0.0102358
-0.0327471 0.170896 -0.010535
-0.0322673 0.170953 -0.0108343
-0.0317958 0.171012 -0.0112682
-0.031316 0.171069 -0.0115675
-0.0308362 0.171125 -0.0118667
-0.0303647 0.171185 -0.0123007
-0.0298849 0.171241 -0.0125999
-0.0294134 0.171301 -0.0130339
-0.0289421 0.171362 -0.0134678
-0.0284791 0.171426 -0.0140365
-0.0280077 0.171487 -0.0144705
-0.0275448 0.171551 -0.0150391
-0.0270903 0.171619 -0.0157426
-0.0266697 0.171704 -0.016985
-0.0262321 0.171779 -0.0179579
-0.0257523 0.171836 -0.0182571
-0.0972444 0.166343 -0.0318953
-0.0966762 0.166358 -0.0307872
-0.0961438 0.166391 -0.030248
-0.0955846 0.16641 -0.0292821
-0.09507 0.16645 -0.0290274
-0.0945376 0.166482 -0.0284882
-0.094023 0.166523 -0.0282335
-0.0935172 0.166566 -0.028121
-0.0929857 0.166598 -0.0275969
-0.0925058 0.166654 -0.0278961
-0.0919751 0.166685 -0.0273869
-0.0914614 0.166726 -0.0271472
-0.0909985 0.16679 -0.0277159
-0.0904932 0.166833 -0.0276109
-0.0900133 0.16689 -0.0279101
-0.0895874 0.166971 -0.0290703
-0.0891352 0.167039 -0.0298112
-0.0886652 0.167099 -0.0302677
-0.0881504 0.167138 -0.030013
-0.0878052 0.167255 -0.0324608
-0.087344 0.167319 -0.0330595
-0.0868829 0.167384 -0.0336582
-0.0864128 0.167444 -0.0341147
-0.0859873 0.167524 -0.0352823
-0.0855261 0.167588 -0.0358811
-0.0850739 0.167657 -0.0366219
-0.0846217 0.167725 -0.0373629
-0.0842229 0.167817 -0.0389573
-0.0575397 0.168758 0.00476689
-0.057009 0.168789 0.00527605
-0.0564614 0.168812 0.00605472
-0.0559646 0.16886 0.00602496
-0.0554508 0.1689 0.00626468
-0.0549286 0.168935 0.00663912
-0.0544234 0.16898 0.00674413
-0.0539096 0.16902 0.00698382
-0.0533959 0.169059 0.00722353
-0.0528906 0.169103 0.00732849
-0.0523853 0.169147 0.00743347
-0.05188 0.16919 0.00753844
-0.0513832 0.169238 0.00750868
-0.0508949 0.169291 0.00734418
-0.0503981 0.169339 0.00731442
-0.0499183 0.169395 0.00701519
-0.0494384 0.169452 0.00671596
-0.048967 0.169511 0.00628197
-0.0485126 0.169581 0.00557852
-0.0480497 0.169646 0.00500984
-0.0475952 0.169714 0.00430637
-0.0471493 0.169787 0.00346822
-0.0466948 0.169855 0.00276475
-0.0462404 0.169924 0.00206131
-0.0458029 0.170001 0.00108837
-0.04534 0.170066 0.000519679
-0.044894 0.170139 -0.000318512
-0.0444566 0.170216 -0.00129141
-0.0439936 0.17028 -0.00186014
-0.0435307 0.170345 -0.00242886
-0.0430594 0.170406 -0.00286282
-0.0425879 0.170466 -0.00329683
-0.0421166 0.170526 -0.00373079
-0.0416537 0.170591 -0.00429942
-0.0411739 0.170648 -0.00459872
-0.0407024 0.170707 -0.00503272
-0.0402311 0.170768 -0.00546668
-0.0397512 0.170825 -0.00576588
-0.0392883 0.170889 -0.00633464
-0.0387999 0.170941 -0.00649907
-0.0383286 0.171001 -0.00693304
-0.0378572 0.171062 -0.007367
-0.0373774 0.171119 -0.0076663
-0.0369059 0.171178 -0.0081003
-0.0364261 0.171235 -0.00839949
-0.0359463 0.171291 -0.00869869
-0.0354664 0.171348 -0.00899789
-0.0349866 0.171404 -0.00929718
-0.0345151 0.171464 -0.00973118
-0.0340353 0.171521 -0.0100304
-0.0335555 0.171577 -0.0103297
-0.0330841 0.171638 -0.0107636
-0.0326043 0.171694 -0.0110628
-0.0321328 0.171754 -0.0114968
-0.031653 0.17181 -0.011796
-0.0311731 0.171867 -0.0120952
-0.0307018 0.171928 -0.0125293
-0.0302219 0.171983 -0.0128285
-0.0297505 0.172044 -0.0132625
-0.0292876 0.172109 -0.0138311
-0.0288078 0.172165 -0.0141304
-0.0283448 0.172229 -0.0146991
-0.0278819 0.172294 -0.0152678
-0.0274191 0.172359 -0.0158365
-0.0269815 0.172436 -0.0168094
-0.0265864 0.172534 -0.018456
-0.0260981 0.172586 -0.0186205
-0.097646 0.167128 -0.0331346
-0.0971403 0.167171 -0.0330222
-0.0965454 0.167174 -0.0314874
-0.0960218 0.16721 -0.0310906
-0.0954983 0.167245 -0.0306937
-0.0949658 0.167277 -0.0301545
-0.0944245 0.167305 -0.0294731
-0.0939098 0.167344 -0.0292184
-0.093413 0.167392 -0.0292481
-0.0928984 0.167432 -0.0289935
-0.0923837 0.167472 -0.0287388
-0.0918958 0.167524 -0.0289108
-0.0913902 0.167568 -0.0287983
-0.0908844 0.167612 -0.0286858
-0.0904589 0.167692 -0.0298534
-0.0899443 0.167733 -0.0295987
-0.08951 0.16781 -0.030624
-0.089031 0.167866 -0.0309383
-0.0885431 0.167917 -0.0311103
-0.0881623 0.168019 -0.032989
-0.087719 0.168092 -0.0338721
-0.0872668 0.168161 -0.034613
-0.0867967 0.168221 -0.0350694
-0.0863535 0.168294 -0.0359526
-0.0858923 0.168358 -0.0365512
-0.08544 0.168426 -0.0372922
-0.08497 0.168487 -0.0377486
-0.0845267 0.168559 -0.0386317
-0.0841102 0.168645 -0.0399416
-0.0837205 0.168742 -0.0416779
-0.0564194 0.169652 0.0039104
-0.0558463 0.169662 0.00509328
-0.055341 0.169706 0.00519826
-0.0548187 0.169741 0.0055727
-0.0542965 0.169777 0.00594716
-0.0537912 0.16982 0.00605214
-0.0532775 0.16986 0.00629187
-0.0527637 0.169899 0.00653158
-0.0522584 0.169943 0.00663656
-0.0517447 0.169983 0.00687627
-0.0512479 0.170031 0.00684651
-0.0507426 0.170075 0.00695149
-0.0502543 0.170127 0.00678698
-0.0497659 0.170179 0.0066225
-0.0492861 0.170236 0.00632324
-0.0488063 0.170292 0.00602401
-0.0483434 0.170357 0.00545529
-0.0478805 0.170422 0.00488656
-0.0474177 0.170487 0.00431784
-0.0469717 0.17056 0.00347966
-0.0465173 0.17063 0.00277619
-0.046063 0.170699 0.00207272
-0.045617 0.170772 0.00123453
-0.0451627 0.170841 0.000531062
-0.0447082 0.170909 -0.000172423
-0.0442707 0.170987 -0.00114535
-0.0438163 0.171056 -0.00184882
-0.0433535 0.171121 -0.00241753
-0.0428906 0.171186 -0.00298626
-0.0424192 0.171247 -0.00342023
-0.0419564 0.171312 -0.00398896
-0.041485 0.171373 -0.00442292
-0.0410137 0.171433 -0.00485688
-0.0405423 0.171494 -0.00529085
-0.0400709 0.171555 -0.00572491
-0.0395911 0.171611 -0.00602411
-0.0391198 0.171672 -0.00645807
-0.0386484 0.171733 -0.00689203
-0.038177 0.171793 -0.0073261
-0.0376972 0.17185 -0.00762529
-0.0372259 0.171911 -0.00805925
-0.036746 0.171967 -0.00835855
-0.0362662 0.172024 -0.00865775
-0.0357948 0.172084 -0.00909171
-0.035315 0.172141 -0.00939101
-0.0348436 0.172201 -0.00982497
-0.0343638 0.172258 -0.0101242
-0.033884 0.172314 -0.0104235
-0.0334126 0.172375 -0.0108574
-0.0329328 0.172432 -0.0111566
-0.0324614 0.172492 -0.0115907
-0.0319816 0.172549 -0.0118899
-0.0315102 0.17261 -0.0123238
-0.0310304 0.172666 -0.0126231
-0.0305506 0.172722 -0.0129223
-0.0300791 0.172782 -0.0133563
-0.0296162 0.172847 -0.0139251
-0.0291449 0.172908 -0.014359
-0.028682 0.172973 -0.0149278
-0.0282191 0.173038 -0.0154965
-0.0277563 0.173103 -0.0160652
-0.0273103 0.173176 -0.0169034
-0.0268984 0.173267 -0.0182806
-0.0264524 0.17334 -0.0191188
-0.0259387 0.173379 -0.018879
-0.0975064 0.167941 -0.0336925
-0.0969917 0.16798 -0.0334378
-0.0964324 0.167998 -0.0324721
-0.0958911 0.168026 -0.0317907
-0.0953853 0.16807 -0.0316782
-0.0948796 0.168113 -0.0315659
-0.0943292 0.168136 -0.0307423
-0.0938057 0.168172 -0.0303453
-0.0932999 0.168215 -0.0302329
-0.0928031 0.168263 -0.0302627
-0.0923063 0.168311 -0.0302925
-0.0918006 0.168355 -0.03018
-0.0913395 0.16842 -0.0307787
-0.0908249 0.16846 -0.0305239
-0.0903816 0.168533 -0.031407
-0.0899295 0.168602 -0.0321479
-0.0894505 0.168658 -0.0324621
-0.0890162 0.168735 -0.0334874
-0.0885373 0.168792 -0.0338015
-0.0880672 0.168853 -0.034258
-0.0876507 0.168938 -0.0355677
-0.0871539 0.168986 -0.0355974
-0.0867196 0.169063 -0.0366227
-0.0862585 0.169128 -0.0372214
-0.0858064 0.169198 -0.0379622
-0.0853453 0.169263 -0.0385608
-0.084893 0.169331 -0.0393017
-0.0844498 0.169404 -0.0401847
-0.0840244 0.169485 -0.0413523
-0.083599 0.169567 -0.0425198
-0.0552228 0.170509 0.00426653
-0.054709 0.170548 0.00450626
-0.0541867 0.170583 0.0048807
-0.0536814 0.170626 0.00498568
-0.0531592 0.170662 0.00536017
-0.0526454 0.170701 0.00559988
-0.0521232 0.170737 0.00597436
-0.0516264 0.170785 0.00594459
-0.0511211 0.170828 0.00604958
-0.0506158 0.170872 0.00615456
-0.050119 0.17092 0.0061248
-0.0496222 0.170968 0.00609504
-0.0491339 0.17102 0.00593053
-0.048654 0.171077 0.00563126
-0.0481742 0.171133 0.00533202
-0.0477029 0.171194 0.00489802
-0.0472486 0.171264 0.00419456
-0.0467857 0.171329 0.00362581
-0.0463313 0.171398 0.00292233
-0.0458769 0.171468 0.00221885
-0.0454311 0.171542 0.00138066
-0.0449767 0.171611 0.000677164
-0.0445224 0.171681 -2.62764e-05
-0.044068 0.171751 -0.000729774
-0.0436306 0.171828 -0.00170275
-0.0431763 0.171898 -0.00240616
-0.0427219 0.171968 -0.00310966
-0.0422505 0.172028 -0.00354372
-0.0417878 0.172094 -0.00411242
-0.0413164 0.172155 -0.00454638
-0.0408451 0.172216 -0.00498044
-0.0403737 0.172276 -0.00541441
-0.0399024 0.172337 -0.00584837
-0.0394311 0.172399 -0.0062824
-0.0389597 0.17246 -0.00671636
-0.0384884 0.17252 -0.00715032
-0.038017 0.172581 -0.00758439
-0.0375372 0.172638 -0.00788358
-0.0370658 0.172698 -0.00831755
-0.0365946 0.17276 -0.00875157
-0.0361147 0.172816 -0.00905077
-0.0356434 0.172877 -0.00948483
-0.0351636 0.172934 -0.00978403
-0.0346922 0.172994 -0.0102181
-0.0342209 0.173056 -0.010652
-0.0337411 0.173113 -0.0109513
-0.0332613 0.173169 -0.0112505
-0.0327899 0.17323 -0.0116846
-0.0323101 0.173286 -0.0119838
-0.0318387 0.173347 -0.0124178
-0.031359 0.173404 -0.012717
-0.0308876 0.173465 -0.013151
-0.0304163 0.173526 -0.013585
-0.0299534 0.173591 -0.0141538
-0.0294821 0.173652 -0.0145877
-0.0290193 0.173717 -0.0151564
-0.0285564 0.173782 -0.0157251
-0.0280935 0.173847 -0.016294
-0.0276392 0.173918 -0.0169974
-0.0272018 0.173995 -0.0179704
-0.0267984 0.174091 -0.0194823
-0.0262846 0.17413 -0.0192425
-0.0973936 0.168767 -0.0346769
-0.0968522 0.168794 -0.0339956
-0.0963285 0.168828 -0.0335988
-0.095805 0.168864 -0.0332018
-0.0952724 0.168895 -0.0326628
-0.0947577 0.168934 -0.0324081
-0.0942252 0.168965 -0.0318691
-0.0937195 0.169009 -0.0317566
-0.0932049 0.169049 -0.0315019
-0.0927348 0.169109 -0.0319584
-0.092238 0.169157 -0.0319881
-0.0917502 0.16921 -0.03216
-0.0913069 0.169283 -0.0330431
-0.0908101 0.169331 -0.0330728
-0.0903491 0.169396 -0.0336715
-0.0898791 0.169457 -0.0341278
-0.0893912 0.169509 -0.0342998
-0.0889301 0.169574 -0.0348984
-0.088478 0.169644 -0.0356392
-0.088008 0.169704 -0.0360956
-0.087538 0.169765 -0.0365519
-0.0870947 0.169838 -0.037435
-0.0866158 0.169895 -0.0377492
-0.0861815 0.169973 -0.0387744
-0.0857205 0.170038 -0.039373
-0.0852415 0.170094 -0.0396871
-0.0847983 0.170168 -0.0405701
-0.0843552 0.170242 -0.0414532
-0.0839119 0.170315 -0.0423363
-0.0834955 0.170402 -0.0436458
-0.0540686 0.171387 0.00394896
-0.0535633 0.17143 0.00405393
-0.053041 0.171465 0.00442841
-0.0525272 0.171504 0.00466814
-0.0520134 0.171544 0.00490787
-0.0515082 0.171588 0.00501286
-0.0509943 0.171626 0.00525258
-0.050489 0.17167 0.00535755
-0.0499837 0.171714 0.00546255
-0.0494785 0.171757 0.00556754
-0.0489817 0.171805 0.00553778
-0.0485018 0.171862 0.0052385
-0.048022 0.171918 0.00493924
-0.0475338 0.171972 0.00477476
-0.0470794 0.172041 0.00407126
-0.0466166 0.172107 0.00350252
-0.0461452 0.172167 0.00306849
-0.0456994 0.172242 0.00223026
-0.0452451 0.172312 0.0015268
-0.0447908 0.172382 0.000823313
-0.0443365 0.172451 0.000119776
-0.0438822 0.172522 -0.000583694
-0.0434448 0.1726 -0.00155668
-0.0429905 0.17267 -0.00226017
-0.0425447 0.172745 -0.00309839
-0.0420819 0.17281 -0.00366712
-0.0416191 0.172876 -0.00423592
-0.0411477 0.172936 -0.00466988
-0.0406765 0.172998 -0.00510391
-0.0402051 0.173059 -0.00553787
-0.0397423 0.173125 -0.00610666
-0.0392625 0.173181 -0.00640586
-0.0387997 0.173247 -0.00697465
-0.0383284 0.173308 -0.00740862
-0.0378571 0.17337 -0.00784264
-0.0373858 0.17343 -0.00827661
-0.0369059 0.173487 -0.0085759
-0.0364347 0.173549 -0.00900993
-0.0359633 0.173609 -0.00944389
-0.0354921 0.173671 -0.00987792
-0.0350122 0.173728 -0.0101771
-0.034541 0.173789 -0.0106111
-0.0340611 0.173846 -0.0109103
-0.0335898 0.173906 -0.0113444
-0.03311 0.173964 -0.0116437
-0.0326387 0.174025 -0.0120776
-0.0321673 0.174085 -0.0125117
-0.0316961 0.174147 -0.0129456
-0.0312247 0.174208 -0.0133797
-0.0307535 0.174269 -0.0138136
-0.0302821 0.17433 -0.0142477
-0.0298193 0.174396 -0.0148164
-0.0293565 0.174461 -0.0153852
-0.0288852 0.174523 -0.0158191
-0.0284309 0.174593 -0.0165227
-0.0279765 0.174662 -0.0172262
-0.0275137 0.174728 -0.0177949
-0.0271359 0.174837 -0.0197111
-0.0266391 0.174885 -0.0197408
-0.097263 0.169585 -0.0353767
-0.0967304 0.169616 -0.0348377
-0.0961979 0.169647 -0.0342986
-0.0956832 0.169686 -0.034044
-0.0951596 0.16972 -0.0336472
-0.0946092 0.169743 -0.0328238
-0.0941303 0.1698 -0.0331379
-0.0936156 0.169839 -0.0328833
-0.0931277 0.169891 -0.0330553
-0.0926399 0.169944 -0.0332272
-0.092161 0.170001 -0.0335414
-0.091673 0.170052 -0.0337133
-0.0912388 0.17013 -0.0347385
-0.090742 0.170178 -0.0347683
-0.0902542 0.170231 -0.0349402
-0.0897842 0.170292 -0.0353965
-0.0893143 0.170354 -0.0358529
-0.0888532 0.170419 -0.0364515
-0.0883743 0.170475 -0.0367657
-0.0879311 0.170549 -0.0376486
-0.0874611 0.170611 -0.0381049
-0.087 0.170676 -0.0387035
-0.086539 0.170741 -0.0393021
-0.0860869 0.170811 -0.0400428
-0.0855991 0.170863 -0.0402148
-0.0851648 0.170942 -0.0412399
-0.0846948 0.171002 -0.0416963
-0.0842605 0.17108 -0.0427214
-0.0838174 0.171154 -0.0436044
-0.0833832 0.171233 -0.0446295
-0.0829936 0.171333 -0.0463657
-0.0534707 0.172248 0.00271789
-0.0529484 0.172282 0.00309235
-0.0524091 0.172308 0.00373634
-0.0518869 0.172343 0.00411085
-0.0513815 0.172386 0.00421582
-0.0508762 0.17243 0.00432082
-0.0503709 0.172474 0.0044258
-0.0498486 0.172508 0.00480027
-0.0493433 0.172552 0.00490527
-0.0488465 0.1726 0.00487551
-0.0483497 0.172648 0.00484575
-0.0478614 0.1727 0.00468122
-0.0473816 0.172758 0.00438199
-0.0469103 0.172818 0.00394796
-0.046439 0.17288 0.00351397
-0.0459763 0.172946 0.0029452
-0.045522 0.173016 0.00224169
-0.0450677 0.173086 0.00153819
-0.0446049 0.173152 0.000969425
-0.0441591 0.173227 0.000131148
-0.0436963 0.173293 -0.000437615
-0.0432506 0.173368 -0.00127583
-0.0428048 0.173442 -0.00211407
-0.042359 0.173517 -0.0029524
-0.0418962 0.173583 -0.00352109
-0.0414505 0.173658 -0.00435938
-0.0409791 0.173719 -0.00479344
-0.0405079 0.173781 -0.00522737
-0.0400451 0.173847 -0.00579616
-0.0395738 0.173908 -0.00623009
-0.0391025 0.173969 -0.00666415
-0.0386312 0.174031 -0.00709818
-0.0381684 0.174097 -0.00766687
-0.0376886 0.174153 -0.00796617
-0.0372174 0.174215 -0.00840019
-0.0367461 0.174277 -0.00883422
-0.0362747 0.174337 -0.00926818
-0.0358035 0.174399 -0.00970221
-0.0353322 0.174461 -0.0101362
-0.0348609 0.174521 -0.0105703
-0.0343811 0.174579 -0.0108695
-0.0339099 0.174641 -0.0113035
-0.0334385 0.174701 -0.0117375
-0.0329588 0.174759 -0.0120368
-0.032496 0.174825 -0.0126055
-0.0320162 0.174881 -0.0129048
-0.0315534 0.174947 -0.0134736
-0.0310906 0.175013 -0.0140423
-0.0306108 0.17507 -0.0143416
-0.0301565 0.17514 -0.0150451
-0.0296768 0.175197 -0.0153444
-0.0292225 0.175267 -0.0160479
-0.0287597 0.175333 -0.0166166
-0.0283054 0.175404 -0.0173201
-0.0278426 0.17547 -0.0178889
-0.0274564 0.175576 -0.0196703
-0.0269766 0.175632 -0.0199696
-0.0971414 0.170408 -0.0362187
-0.0966178 0.170443 -0.0358219
-0.0961031 0.170483 -0.0355672
-0.0955527 0.170504 -0.0347439
-0.0950559 0.170552 -0.0347736
-0.0945501 0.170596 -0.0346612
-0.0940444 0.170639 -0.0345488
-0.0935834 0.170705 -0.0351473
-0.0930597 0.17074 -0.0347505
-0.0925987 0.170806 -0.035349
-0.092084 0.170845 -0.0350944
-0.0915962 0.170897 -0.0352664
-0.0911083 0.17095 -0.0354383
-0.0906384 0.171011 -0.0358946
-0.0901862 0.171081 -0.0366353
-0.0897163 0.171142 -0.0370917
-0.0892374 0.171199 -0.0374058
-0.0887585 0.171256 -0.03772
-0.0882975 0.171322 -0.0383184
-0.0878096 0.171374 -0.0384904
-0.0873754 0.171453 -0.0395156
-0.0868965 0.171509 -0.0398297
-0.0864355 0.171575 -0.0404282
-0.0859566 0.171632 -0.0407423
-0.0855313 0.171715 -0.0419096
-0.0850614 0.171776 -0.0423659
-0.0846004 0.171842 -0.0429645
-0.0841572 0.171916 -0.0438474
-0.0837051 0.171987 -0.0445881
-0.0832888 0.172074 -0.0458975
-0.0828457 0.172149 -0.0467805
-0.0523167 0.173128 0.00240029
-0.0517773 0.173152 0.00304426
-0.0512805 0.1732 0.0030145
-0.0507582 0.173235 0.00338899
-0.0502443 0.173273 0.00362872
-0.0497306 0.173313 0.00386848
-0.0492082 0.173347 0.00424299
-0.0487029 0.173391 0.00434797
-0.0482146 0.173443 0.00418347
-0.0477178 0.173491 0.00415371
-0.0472295 0.173543 0.00398917
-0.0467498 0.173601 0.00368991
-0.0462785 0.173663 0.00325589
-0.0458073 0.173724 0.00282189
-0.0453445 0.17379 0.0022531
-0.0448817 0.173856 0.00168432
-0.044436 0.173932 0.00084606
-0.0439732 0.173998 0.000277277
-0.043519 0.174069 -0.000426235
-0.0430733 0.174144 -0.00126449
-0.042619 0.174214 -0.00196807
-0.0421733 0.17429 -0.00280626
-0.0417105 0.174356 -0.00337506
-0.0412733 0.174435 -0.00434811
-0.0408021 0.174497 -0.00478214
-0.0403479 0.174568 -0.00548566
-0.0398766 0.17463 -0.00591969
-0.0394053 0.174692 -0.00635361
-0.038934 0.174752 -0.00678768
-0.0384713 0.174819 -0.00735643
-0.0380001 0.174881 -0.00779046
-0.0375287 0.174942 -0.00822452
-0.0370574 0.175003 -0.00865855
-0.0365862 0.175065 -0.00909257
-0.0361149 0.175127 -0.0095266
-0.0356437 0.175189 -0.00996063
-0.0351724 0.17525 -0.0103946
-0.0347012 0.175312 -0.0108286
-0.0342299 0.175374 -0.0112626
-0.0337586 0.175435 -0.0116966
-0.0332788 0.175492 -0.0119959
-0.0328246 0.175563 -0.0126994
-0.0323449 0.175621 -0.0129987
-0.0318821 0.175687 -0.0135675
-0.0314108 0.175748 -0.0140014
-0.0309396 0.17581 -0.0144355
-0.0304853 0.17588 -0.015139
-0.030014 0.175942 -0.015573
-0.0295599 0.176013 -0.0162766
-0.0290885 0.176074 -0.0167106
-0.0286428 0.176149 -0.0175489
-0.0281886 0.17622 -0.0182523
-0.0277769 0.176314 -0.0196297
-0.0273141 0.17638 -0.0201984
-0.0268258 0.176432 -0.020363
-0.0970199 0.171233 -0.0370605
-0.0965142 0.171277 -0.0369481
-0.0960174 0.171325 -0.0369779
-0.0954938 0.171359 -0.0365811
-0.0949701 0.171394 -0.0361843
-0.0944465 0.171429 -0.0357875
-0.0939586 0.171481 -0.0359594
-0.0934887 0.171543 -0.0364157
-0.0929829 0.171586 -0.0363034
-0.0924861 0.171634 -0.0363331
-0.0919893 0.171682 -0.0363629
-0.0915015 0.171735 -0.0365348
-0.0910405 0.171801 -0.0371332
-0.0905526 0.171853 -0.0373053
-0.0901006 0.171923 -0.038046
-0.0896127 0.171976 -0.0382179
-0.0891428 0.172037 -0.0386742
-0.0886549 0.17209 -0.0388461
-0.088185 0.172151 -0.0393024
-0.0877419 0.172226 -0.0401853
-0.0872719 0.172287 -0.0406416
-0.086802 0.172349 -0.0410979
-0.086341 0.172415 -0.0416963
-0.0858889 0.172485 -0.042437
-0.085419 0.172546 -0.0428933
-0.0849669 0.172617 -0.0436339
-0.0845149 0.172687 -0.0443747
-0.0840539 0.172753 -0.0449731
-0.0836198 0.172833 -0.0459981
-0.0831767 0.172908 -0.0468809
-0.0827426 0.172987 -0.0479059
-0.0511712 0.174011 0.00194791
-0.0506658 0.174054 0.00205286
-0.0501435 0.174089 0.00242737
-0.0496382 0.174132 0.00253238
-0.0490988 0.174157 0.00317641
-0.0485849 0.174196 0.00341613
-0.0480711 0.174234 0.00365589
-0.0475743 0.174282 0.00362612
-0.0470861 0.174336 0.00346162
-0.0466062 0.174392 0.0031623
-0.046118 0.174445 0.00299783
-0.0456468 0.174507 0.0025638
-0.0451755 0.174569 0.00212974
-0.0447128 0.174636 0.00156099
-0.0442586 0.174707 0.000857452
-0.0437959 0.174773 0.000288659
-0.0433417 0.174844 -0.000414883
-0.0428875 0.174915 -0.00111841
-0.0424333 0.174986 -0.00182196
-0.0419876 0.175062 -0.00266027
-0.0415334 0.175133 -0.00336379
-0.0410792 0.175204 -0.00406731
-0.040625 0.175275 -0.00477083
-0.0401793 0.175351 -0.00560912
-0.039708 0.175412 -0.00604315
-0.0392368 0.175475 -0.00647724
-0.0387741 0.175541 -0.00704603
-0.0383028 0.175603 -0.00748006
-0.0378401 0.17567 -0.00804881
-0.0373689 0.175731 -0.00848284
-0.0368976 0.175793 -0.00891687
-0.0364264 0.175855 -0.00935089
-0.0359637 0.175922 -0.00991965
-0.0354924 0.175984 -0.0103537
-0.0350212 0.176045 -0.0107877
-0.0345499 0.176107 -0.0112217
-0.0340787 0.176169 -0.0116558
-0.0336075 0.176231 -0.0120897
-0.0331363 0.176293 -0.0125239
-0.0326735 0.176359 -0.0130927
-0.0322108 0.176426 -0.0136614
-0.0317395 0.176488 -0.0140954
-0.0312683 0.176549 -0.0145295
-0.0308141 0.176621 -0.015233
-0.0303513 0.176687 -0.0158018
-0.0298802 0.176749 -0.0162358
-0.029426 0.17682 -0.0169393
-0.0289717 0.176891 -0.0176429
-0.0285261 0.176967 -0.0184811
-0.0280974 0.177052 -0.019589
-0.0276517 0.177127 -0.0204273
-0.0271464 0.177171 -0.0203223
-0.0969074 0.172063 -0.0380445
-0.0963927 0.172102 -0.0377898
-0.0958959 0.17215 -0.0378196
-0.0953633 0.17218 -0.0372807
-0.0948487 0.172219 -0.0370261
-0.094334 0.172258 -0.0367715
-0.0938551 0.172315 -0.0370857
-0.0933583 0.172363 -0.0371154
-0.0928525 0.172407 -0.0370029
-0.0923736 0.172464 -0.0373171
-0.0918947 0.17252 -0.0376312
-0.0914337 0.172586 -0.0382296
-0.0909369 0.172634 -0.0382594
-0.090467 0.172697 -0.0387157
-0.0899882 0.172754 -0.0390298
-0.0895182 0.172815 -0.039486
-0.0890393 0.172872 -0.0398002
-0.0885784 0.172939 -0.0403986
-0.0880905 0.172991 -0.0405705
-0.0876474 0.173066 -0.0414534
-0.0871685 0.173123 -0.0417674
-0.0867076 0.17319 -0.0423658
-0.0862377 0.173252 -0.0428222
-0.0857856 0.173322 -0.0435628
-0.0853158 0.173384 -0.044019
-0.0848637 0.173455 -0.0447596
-0.0844027 0.173521 -0.0453581
-0.0839597 0.173596 -0.0462409
-0.0834987 0.173662 -0.0468394
-0.0830467 0.173734 -0.0475799
-0.0500343 0.174901 0.00136074
-0.0495204 0.174939 0.00160049
-0.048998 0.174973 0.00197497
-0.0484586 0.174997 0.00261902
-0.0479447 0.175036 0.00285876
-0.0474394 0.17508 0.00296378
-0.0469426 0.175128 0.00293402
-0.0464543 0.17518 0.00276948
-0.0459661 0.175233 0.00260499
-0.0454863 0.175291 0.0023057
-0.0450065 0.175347 0.0020064
-0.0445438 0.175414 0.0014376
-0.0440812 0.175481 0.000868817
-0.0436271 0.175553 0.000165282
-0.0431643 0.175619 -0.000403551
-0.0427102 0.175691 -0.00110707
-0.042256 0.175763 -0.00181063
-0.0418018 0.175834 -0.00251417
-0.0413562 0.17591 -0.00335252
-0.040902 0.175981 -0.00405605
-0.0404479 0.176053 -0.00475963
-0.0400022 0.176129 -0.00559792
-0.0395395 0.176196 -0.00616668
-0.0390768 0.176263 -0.00673553
-0.0386057 0.176325 -0.00716952
-0.0381429 0.176391 -0.00773831
-0.0376802 0.176458 -0.00830717
-0.0372091 0.176521 -0.00874116
-0.0367464 0.176588 -0.00930991
-0.0362751 0.17665 -0.00974394
-0.0358039 0.176711 -0.0101781
-0.0353327 0.176774 -0.0106121
-0.03487 0.176841 -0.0111808
-0.0344073 0.176907 -0.0117497
-0.0339275 0.176965 -0.012049
-0.0334649 0.177031 -0.0126177
-0.0329937 0.177094 -0.0130518
-0.0325309 0.17716 -0.0136206
-0.0320682 0.177227 -0.0141894
-0.0315971 0.17729 -0.0146233
-0.0311343 0.177356 -0.0151922
-0.0306802 0.177428 -0.0158957
-0.0302005 0.177485 -0.016195
-0.0297633 0.177566 -0.0171681
-0.0292921 0.177628 -0.0176021
-0.0288465 0.177704 -0.0184405
-0.0284264 0.177794 -0.019683
-0.0279808 0.177871 -0.0205213
-0.0274755 0.177914 -0.0204163
-0.0957926 0.172986 -0.0389456
-0.0952779 0.173025 -0.0386909
-0.0947631 0.173063 -0.0384364
-0.0942305 0.173093 -0.0378975
